ply
format ascii 1.0
element vertex 669
property float x
property float y
property float z
property uchar red
property uchar green
property uchar blue
end_header
0.5248400568962097 -0.07436368614435196 0.15797394514083862 204 204 255
0.5250372886657715 -0.1917526125907898 0.1855548471212387 204 204 255
0.12650613486766815 -0.3197574317455292 0.46638932824134827 204 204 255
0.5249099731445312 -0.19832968711853027 0.18536780774593353 204 204 255
0.5245632529258728 -0.21104496717453003 0.18856066465377808 204 204 255
0.5246042013168335 -0.1949927657842636 0.18447163701057434 204 204 255
0.5229424238204956 -0.19986769556999207 0.1844153106212616 204 204 255
0.5214278101921082 -0.1244766116142273 0.1669842153787613 204 204 255
0.5196141004562378 -0.11891760677099228 0.16510841250419617 204 204 255
0.5190224647521973 -0.09231936186552048 0.1590086966753006 204 204 255
0.5217146277427673 -0.21281544864177704 0.18636702001094818 204 204 255
0.5139961838722229 0.044340066611766815 0.12809941172599792 204 204 255
0.5185472965240479 -0.09610718488693237 0.15865333378314972 204 204 255
0.5193923711776733 -0.12457171082496643 0.16477391123771667 204 204 255
0.5193923711776733 -0.12457171082496643 0.16477391123771667 204 204 255
0.5185824036598206 -0.15973550081253052 0.17278514802455902 204 204 255
0.51983642578125 -0.2574084401130676 0.19447824358940125 204 204 255
0.5163925290107727 -0.12459336221218109 0.1629793643951416 204 204 255
0.5152353048324585 -0.1288895606994629 0.16339345276355743 204 204 255
0.518177330493927 -0.17286710441112518 0.17172487080097198 204 204 255
0.5137946009635925 -0.1254662722349167 0.1613740175962448 204 204 255
0.515444278717041 -0.2581155002117157 0.19150608777999878 204 204 255
0.5070578455924988 0.06277161836624146 0.11880514025688171 204 204 255
0.5180639624595642 -0.0403042696416378 0.1355307549238205 204 204 255
0.5063464045524597 0.025804081931710243 0.12666955590248108 204 204 255
0.5100812315940857 -0.10973429679870605 0.155116006731987 204 204 255
0.51200932264328 -0.255026251077652 0.18754447996616364 204 204 255
0.5086793303489685 -0.13785821199417114 0.16076518595218658 204 204 255
0.5086793303489685 -0.13785821199417114 0.16076518595218658 204 204 255
0.5067545175552368 -0.1076919212937355 0.15318907797336578 204 204 255
0.5067545175552368 -0.1076919212937355 0.15318907797336578 204 204 255
0.5066404342651367 -0.11204218864440918 0.1536273956298828 204 204 255
0.5015581846237183 0.01958080194890499 0.12382666766643524 204 204 255
0.5053223371505737 -0.14374999701976776 0.15870220959186554 204 204 255
0.5034148693084717 -0.09882798045873642 0.14888004958629608 204 204 255
0.5037115812301636 -0.11988120526075363 0.15315194427967072 204 204 255
0.5014973282814026 -0.09258799999952316 0.14617164433002472 204 204 255
0.5025305151939392 -0.13763466477394104 0.1552114486694336 204 204 255
0.5024454593658447 -0.15056754648685455 0.15821421146392822 204 204 255
0.5024454593658447 -0.15056754648685455 0.15821421146392822 204 204 255
0.501355767250061 -0.11595238745212555 0.1499212384223938 204 204 255
0.49938997626304626 -0.10457941144704819 0.14687784016132355 204 204 255
0.4956797957420349 0.02118881791830063 0.11841333657503128 204 204 255
0.501567006111145 -0.25914204120635986 0.18151308596134186 204 204 255
0.4967123568058014 -0.09754535555839539 0.1433105170726776 204 204 255
0.49491560459136963 -0.09258443862199783 0.14119946956634521 204 204 255
0.49540263414382935 -0.10326866805553436 0.14300404489040375 204 204 255
0.49363911151885986 -0.13468675315380096 0.1499636322259903 204 204 255
0.49244725704193115 -0.09424004703760147 0.13981755077838898 204 204 255
0.4906388223171234 -0.11507672071456909 0.14248888194561005 204 204 255
0.496517539024353 -0.07038023322820663 0.12049117684364319 204 204 255
0.48677852749824524 -0.12037273496389389 0.1397707164287567 204 204 255
0.48611870408058167 -0.09278922528028488 0.13361796736717224 204 204 255
0.4860156178474426 -0.1591065376996994 0.14921797811985016 204 204 255
0.4892401099205017 -0.07060480862855911 0.12378790229558945 204 204 255
0.4909660816192627 -0.028918802738189697 0.11302363127470016 204 204 255
0.49102967977523804 -0.022005515173077583 0.10899412631988525 204 204 255
0.48247167468070984 -0.1255321502685547 0.1385805904865265 204 204 255
0.4804936647415161 -0.11130216717720032 0.13548097014427185 204 204 255
0.48235923051834106 -0.13782232999801636 0.139990895986557 204 204 255
0.4891062080860138 -0.2351381778717041 0.1576055884361267 204 204 255
0.48762959241867065 -0.23041954636573792 0.15741373598575592 204 204 255
0.4826804995536804 -0.25843197107315063 0.16604731976985931 204 204 255
0.48324018716812134 0.002600819105282426 0.10400912165641785 204 204 255
0.4791804254055023 -0.12683820724487305 0.13627485930919647 204 204 255
0.4775417149066925 -0.09315619617700577 0.12869815528392792 204 204 255
0.4775417149066925 -0.09315619617700577 0.12869815528392792 204 204 255
0.4761790633201599 -0.1061634048819542 0.13062049448490143 204 204 255
0.476275235414505 -0.16210675239562988 0.14248651266098022 204 204 255
0.47471123933792114 -0.10564160346984863 0.12794505059719086 204 204 255
0.4756908118724823 -0.016893837600946426 0.10527573525905609 204 204 255
0.46647313237190247 0.0435791052877903 0.0975579172372818 204 204 255
0.4739859998226166 -0.1342589408159256 0.13376328349113464 204 204 255
0.4726255536079407 -0.11241094768047333 0.12876135110855103 204 204 255
0.47277703881263733 -0.10379361361265182 0.12642545998096466 204 204 255
0.47309842705726624 -0.15172414481639862 0.13716186583042145 204 204 255
0.47161465883255005 -0.1512620896100998 0.1378658264875412 204 204 255
0.4789208769798279 -0.023946957662701607 0.09991486370563507 204 204 255
0.460008829832077 -0.2672039568424225 0.16626717150211334 204 204 255
0.46734148263931274 -0.13219612836837769 0.12880083918571472 204 204 255
0.4672979712486267 -0.09672516584396362 0.12031010538339615 204 204 255
0.47043493390083313 -0.10621613264083862 0.11740218847990036 204 204 255
0.4604294002056122 -0.26579803228378296 0.15378738939762115 204 204 255
0.45393237471580505 0.006992408074438572 0.0894324854016304 204 204 255
0.45397910475730896 -0.047195762395858765 0.10073469579219818 204 204 255
0.4528931677341461 -0.0013441110495477915 0.08998551219701767 204 204 255
0.44917383790016174 0.0647767186164856 0.07585567981004715 204 204 255
0.45137402415275574 -0.08212926238775253 0.10694824159145355 204 204 255
0.45127201080322266 -0.08885922282934189 0.10819011926651001 204 204 255
0.4464432895183563 -0.07384929805994034 0.10095052421092987 204 204 255
0.4456384479999542 -0.021042298525571823 0.08831270784139633 204 204 255
0.4456384479999542 -0.021042298525571823 0.08831270784139633 204 204 255
0.4422415494918823 -0.09225032478570938 0.10250105708837509 204 204 255
0.4417218863964081 -0.15294845402240753 0.1147456094622612 204 204 255
0.4406120479106903 -0.0108886593952775 0.08181245625019073 204 204 255
0.4322933852672577 -0.0341474711894989 0.0802052691578865 204 204 255
0.4367889165878296 -0.059688687324523926 0.07830756157636642 204 204 255
0.42523396015167236 -0.027430012822151184 0.07645784318447113 204 204 255
0.4235838055610657 -0.024484265595674515 0.07363112270832062 204 204 255
0.4099474847316742 -0.031453005969524384 0.06336510181427002 204 204 255
0.41053688526153564 -0.07646939158439636 0.06337913870811462 204 204 255
0.41053688526153564 -0.07646939158439636 0.06337913870811462 204 204 255
0.396344393491745 -0.031800609081983566 0.05546461045742035 204 204 255
0.396344393491745 -0.031800609081983566 0.05546461045742035 204 204 255
0.39392805099487305 -0.02858060412108898 0.05492129921913147 204 204 255
0.397325336933136 -0.04982173070311546 0.050454407930374146 204 204 255
0.3912070393562317 -0.08223141729831696 0.05413370952010155 204 204 255
-0.25729912519454956 -0.10452350229024887 0.5731810927391052 204 204 255
2.8246779441833496 -1.9271005392074585 -1.7005226612091064 204 204 255
0.357365220785141 -0.4359875023365021 0.10686904191970825 204 204 255
-0.8401036858558655 0.1929246187210083 1.0113459825515747 204 204 255
0.3271254897117615 -0.47930189967155457 0.1024843081831932 204 204 255
-0.25825199484825134 0.012836149893701077 0.4676329493522644 204 204 255
0.3271821141242981 -0.10605613142251968 0.017862442880868912 204 204 255
0.3326880931854248 -0.17884600162506104 0.027359960600733757 204 204 255
0.327178031206131 -0.28364408016204834 0.053193289786577225 204 204 255
0.329877108335495 -0.17760920524597168 0.027917709201574326 204 204 255
0.32536739110946655 -0.27728816866874695 0.05071249604225159 204 204 255
0.32530805468559265 -0.24932776391506195 0.03807131573557854 204 204 255
0.3235553503036499 -0.060191523283720016 -0.0036030567716807127 204 204 255
0.32437440752983093 -0.05738065019249916 -0.0052287098951637745 204 204 255
0.3130359351634979 -0.06490334868431091 -0.009796950966119766 204 204 255
0.3122471570968628 -0.2662616968154907 0.028709156438708305 204 204 255
0.30699363350868225 -0.4460029602050781 0.06022649630904198 204 204 255
-1.8926268815994263 0.7693228721618652 1.9512996673583984 204 204 255
2.5865490436553955 -2.038051128387451 -1.91365385055542 204 204 255
0.22162389755249023 -0.22623540461063385 -0.048358138650655746 204 204 255
0.19489504396915436 -0.45104843378067017 -0.014536055736243725 204 204 255
-1.8660938739776611 0.7711336016654968 2.2127022743225098 204 204 255
0.18792812526226044 -0.4517846703529358 -0.02030813880264759 204 204 255
0.1559673696756363 -0.29571983218193054 -0.07322075217962265 204 204 255
0.2437710016965866 -0.7679942846298218 -0.12178786844015121 204 204 255
0.2681642174720764 -0.8018250465393066 -0.1723623275756836 204 204 255
0.2716964781284332 -0.8011294007301331 -0.1784464716911316 204 204 255
0.2683485150337219 -0.8017963767051697 -0.17558495700359344 204 204 255
0.23830737173557281 -0.7940352559089661 -0.14257638156414032 204 204 255
0.2672482430934906 -0.8350057601928711 -0.1701536327600479 204 204 255
0.2870526909828186 -0.8379365801811218 -0.20873716473579407 204 204 255
-2.437940835952759 0.7834509015083313 3.1766669750213623 204 204 255
-2.437940835952759 0.7834509015083313 3.1766669750213623 204 204 255
0.11864089965820312 -0.0774940475821495 -0.11028367280960083 204 204 255
2.1768341064453125 -2.055769443511963 -2.6907763481140137 204 204 255
2.138012647628784 -2.3339834213256836 -2.811323404312134 204 204 255
2.0492708683013916 -2.296696424484253 -2.723508358001709 204 204 255
0.09367833286523819 -0.25951245427131653 -0.14072445034980774 204 204 255
-1.2341957092285156 0.7147408723831177 1.6900449991226196 204 204 255
0.050631772726774216 -0.3552788496017456 -0.15149177610874176 204 204 255
0.04328235238790512 -0.4407261908054352 -0.12960799038410187 204 204 255
0.016546806320548058 -0.43966972827911377 -0.162471204996109 204 204 255
-7.711514626862481e-06 -0.2693299949169159 -0.19756120443344116 204 204 255
-0.003937810193747282 -0.10196475684642792 -0.22287967801094055 204 204 255
-0.011202390305697918 -0.285953551530838 -0.21635162830352783 204 204 255
-0.02573457732796669 0.0016874294960871339 -0.2503494620323181 204 204 255
-0.03628188744187355 -0.09075786918401718 -0.22549420595169067 204 204 255
-0.033052172511816025 -0.3151254951953888 -0.21334293484687805 204 204 255
-0.04213719442486763 -0.09863241016864777 -0.22859083116054535 204 204 255
-0.04213719442486763 -0.09863241016864777 -0.22859083116054535 204 204 255
-0.04209230840206146 -0.10178497433662415 -0.22840720415115356 204 204 255
-0.04208711162209511 -0.09315750002861023 -0.22923484444618225 204 204 255
-0.08882521837949753 -0.28658080101013184 -0.27789589762687683 204 204 255
-0.09696459770202637 -0.047901563346385956 -0.31345880031585693 204 204 255
-0.12265630066394806 -0.48559117317199707 -0.25418007373809814 204 204 255
-0.11856267601251602 -0.21074025332927704 -0.29712045192718506 204 204 255
-0.14483825862407684 -0.19193944334983826 -0.3119114935398102 204 204 255
29.43749237060547 -19.855087280273438 -76.07833862304688 204 204 255
-0.17094926536083221 -0.2375144213438034 -0.33375784754753113 204 204 255
-0.16856707632541656 -0.15919511020183563 -0.34610867500305176 204 204 255
-0.16856707632541656 -0.15919511020183563 -0.34610867500305176 204 204 255
-0.19155898690223694 -0.5355943441390991 -0.28576427698135376 204 204 255
-0.1544756442308426 -0.011065609753131866 -0.3978613615036011 204 204 255
-0.18021762371063232 -0.00010586838470771909 -0.37528157234191895 204 204 255
-0.18367250263690948 -0.008062594570219517 -0.38238269090652466 204 204 255
-0.18654653429985046 0.005968306679278612 -0.3820336163043976 204 204 255
-0.2288738340139389 -0.5049958229064941 -0.2955504059791565 204 204 255
-0.23136159777641296 -0.324181467294693 -0.3689459562301636 204 204 255
-0.22508876025676727 -0.08134372532367706 -0.41016289591789246 204 204 255
-0.2400350719690323 -0.0923733115196228 -0.42430439591407776 204 204 255
0.7143047451972961 0.10895214229822159 0.33238351345062256 204 204 255
0.7114695310592651 0.11643829941749573 0.3188832998275757 204 204 255
0.7314245104789734 -0.6715917587280273 0.5175952911376953 204 204 255
0.7123053073883057 -0.03237337991595268 0.34513458609580994 204 204 255
0.7121509909629822 -0.041716862469911575 0.34705638885498047 204 204 255
0.6993421316146851 -0.08671041578054428 0.35825443267822266 204 204 255
0.7145655155181885 0.12089792639017105 0.29868972301483154 204 204 255
0.705724835395813 -0.003573102643713355 0.3286142945289612 204 204 255
0.7062517404556274 -0.14655551314353943 0.36533796787261963 204 204 255
0.7062517404556274 -0.14655551314353943 0.36533796787261963 204 204 255
0.7086817622184753 -0.10914594680070877 0.35030990839004517 204 204 255
0.6999057531356812 -0.06352443993091583 0.340192973613739 204 204 255
0.7032346129417419 -0.09481915831565857 0.3462406396865845 204 204 255
0.7062920928001404 -0.1337497979402542 0.35144975781440735 204 204 255
0.7108526825904846 -0.009738471359014511 0.3158736526966095 204 204 255
0.7128749489784241 0.11079283803701401 0.28378593921661377 204 204 255
0.6978858709335327 -0.07667280733585358 0.3337613344192505 204 204 255
0.6978858709335327 -0.07667280733585358 0.3337613344192505 204 204 255
0.698495626449585 -0.07001692056655884 0.3307507336139679 204 204 255
0.6935714483261108 -0.33886516094207764 0.3993763029575348 204 204 255
0.7066230177879333 -0.010462285950779915 0.31039634346961975 204 204 255
-1.0461004972457886 0.25656262040138245 0.7100763320922852 204 204 255
0.6966176629066467 -0.09209626168012619 0.33317020535469055 204 204 255
0.6981325745582581 -0.08435490727424622 0.33064529299736023 204 204 255
0.7092563509941101 -0.234745591878891 0.3661060929298401 204 204 255
0.7092563509941101 -0.234745591878891 0.3661060929298401 204 204 255
0.7055152654647827 -0.10780556499958038 0.3340919315814972 204 204 255
0.6965449452400208 -0.2724089026451111 0.37521663308143616 204 204 255
0.6837652921676636 -0.5217188000679016 0.4432625472545624 204 204 255
0.7061707973480225 0.09852974116802216 0.27490925788879395 204 204 255
0.7013648748397827 0.11252548545598984 0.2727590799331665 204 204 255
1.20619797706604 -0.6346004009246826 0.322342187166214 204 204 255
0.6995472311973572 0.012635033577680588 0.2971561849117279 204 204 255
0.7058532238006592 -0.32853594422340393 0.38280409574508667 204 204 255
0.6935495734214783 0.029446842148900032 0.294146329164505 204 204 255
0.7026563286781311 -0.11739727109670639 0.3279130160808563 204 204 255
0.6929811835289001 -0.14497047662734985 0.33449500799179077 204 204 255
0.7031582593917847 -0.12278202176094055 0.32481908798217773 204 204 255
0.6951034069061279 -0.06703981757164001 0.31266775727272034 204 204 255
0.7070791721343994 -0.41914957761764526 0.39861729741096497 204 204 255
0.7070791721343994 -0.41914957761764526 0.39861729741096497 204 204 255
0.694701611995697 -0.07215185463428497 0.3125680983066559 204 204 255
0.694701611995697 -0.07215185463428497 0.3125680983066559 204 204 255
0.6920052170753479 -0.16334085166454315 0.33662906289100647 204 204 255
0.6930312514305115 -0.24165992438793182 0.3540922701358795 204 204 255
0.6979197859764099 0.007419576868414879 0.2868078052997589 204 204 255
0.6978313326835632 0.002092087874189019 0.2876879870891571 204 204 255
0.6757582426071167 -0.16996236145496368 0.3386094272136688 204 204 255
0.6929917335510254 -0.3056928515434265 0.36645445227622986 204 204 255
0.6959313750267029 -0.06412705034017563 0.3027765154838562 204 204 255
0.6975350379943848 -0.003841839265078306 0.2865070402622223 204 204 255
0.6964173316955566 -0.031681694090366364 0.29392316937446594 204 204 255
0.6941534876823425 -0.3365258276462555 0.3716442584991455 204 204 255
0.6940509676933289 -0.05942150205373764 0.2997148633003235 204 204 255
0.6959426999092102 -0.050972819328308105 0.29664677381515503 204 204 255
0.6936228275299072 -0.3933904469013214 0.3822275698184967 204 204 255
0.6925974488258362 -0.10406721383333206 0.30789196491241455 204 204 255
0.1674237996339798 -0.2190127819776535 0.4915039539337158 204 204 255
0.6843631267547607 -0.5139956474304199 0.4126212000846863 204 204 255
0.6913579106330872 -0.12909813225269318 0.3123595416545868 204 204 255
0.6939947009086609 -0.09214207530021667 0.30203405022621155 204 204 255
0.6934373378753662 -0.10285896062850952 0.30454039573669434 204 204 255
0.6842685341835022 -0.4223209321498871 0.3882676362991333 204 204 255
0.6922045350074768 -0.14059655368328094 0.3138725459575653 204 204 255
0.6991602778434753 0.03208116069436073 0.2675264775753021 204 204 255
0.6888999938964844 -0.5080065727233887 0.40736109018325806 204 204 255
0.6894242763519287 -0.18173828721046448 0.3239641785621643 204 204 255
0.6720477342605591 -0.3586856722831726 0.373325914144516 204 204 255
0.6933662295341492 -0.14271491765975952 0.311282753944397 204 204 255
0.6905018091201782 -0.47893214225769043 0.39337608218193054 204 204 255
0.6913785338401794 -0.18193753063678741 0.31746745109558105 204 204 255
0.6826446056365967 -0.5122458338737488 0.4035317003726959 204 204 255
0.6963996291160583 0.028526974841952324 0.26220330595970154 204 204 255
0.6888796091079712 -0.4883272647857666 0.39510515332221985 204 204 255
0.6993284225463867 0.03961644321680069 0.255329966545105 204 204 255
0.7008969187736511 0.005304617807269096 0.26294970512390137 204 204 255
0.6897101402282715 -0.49422886967658997 0.3919486403465271 204 204 255
0.7056711912155151 -0.02527964673936367 0.26807084679603577 204 204 255
0.6740809679031372 -0.4681400954723358 0.3895857334136963 204 204 255
0.6873781085014343 -0.5084532499313354 0.3947247564792633 204 204 255
0.6933334469795227 -0.09127554297447205 0.2856282591819763 204 204 255
0.6811218857765198 -0.4804946780204773 0.3870580494403839 204 204 255
0.6811218857765198 -0.4804946780204773 0.3870580494403839 204 204 255
0.6932997107505798 -0.14006367325782776 0.2969534993171692 204 204 255
0.6892415881156921 0.014455750584602356 0.2567295730113983 204 204 255
0.6773778200149536 -0.517260730266571 0.39430442452430725 204 204 255
0.6799120903015137 -0.4717934727668762 0.3818260133266449 204 204 255
0.6928585171699524 -0.029577363282442093 0.2656722664833069 204 204 255
0.6934003233909607 -0.18321654200553894 0.29681000113487244 204 204 255
0.6796578168869019 -0.046660736203193665 0.26606088876724243 204 204 255
0.6816349029541016 0.054234787821769714 0.23967894911766052 204 204 255
0.6930961012840271 -0.21224093437194824 0.30153343081474304 204 204 255
0.6935480833053589 -0.19463826715946198 0.2950296998023987 204 204 255
0.681337833404541 -0.15046057105064392 0.2882010340690613 204 204 255
0.6959213018417358 -0.2510959804058075 0.3072024881839752 204 204 255
0.6926395297050476 -0.2153153419494629 0.29905495047569275 204 204 255
0.6770755052566528 -0.5045885443687439 0.37537962198257446 204 204 255
0.6668928265571594 0.10204945504665375 0.226714625954628 204 204 255
0.6875911355018616 -0.4536767601966858 0.35738471150398254 204 204 255
0.648217499256134 -0.02174239046871662 0.25911810994148254 204 204 255
0.6656294465065002 -0.2288450300693512 0.3004823923110962 204 204 255
0.6653380393981934 -0.04644431918859482 0.25468891859054565 204 204 255
0.6902772784233093 -0.487343966960907 0.3504396080970764 204 204 255
0.6902772784233093 -0.487343966960907 0.3504396080970764 204 204 255
0.6564154624938965 0.06267402321100235 0.22476129233837128 204 204 255
0.6564154624938965 0.06267402321100235 0.22476129233837128 204 204 255
0.6573007702827454 0.011679613031446934 0.23683501780033112 204 204 255
0.6573007702827454 0.011679613031446934 0.23683501780033112 204 204 255
0.7035525441169739 -0.5219343304634094 0.3490245044231415 204 204 255
0.6641935706138611 -0.2155890166759491 0.2792273759841919 204 204 255
0.6641935706138611 -0.2155890166759491 0.2792273759841919 204 204 255
0.6450601816177368 0.04297477379441261 0.2219322770833969 204 204 255
0.6442165970802307 0.02718997187912464 0.22516174614429474 204 204 255
0.6410948038101196 0.025446955114603043 0.22663502395153046 204 204 255
0.6472235918045044 -0.10688437521457672 0.25609612464904785 204 204 255
0.6428204774856567 0.019133184105157852 0.22626659274101257 204 204 255
0.6426905393600464 0.019247043877840042 0.22627772390842438 204 204 255
0.6426905393600464 0.019247043877840042 0.22627772390842438 204 204 255
0.6489478945732117 -0.42926025390625 0.33354389667510986 204 204 255
0.6406914591789246 -0.011885309591889381 0.23125910758972168 204 204 255
0.6590610146522522 -0.22218209505081177 0.27493351697921753 204 204 255
0.654123842716217 -0.4018995463848114 0.3205958902835846 204 204 255
0.640169620513916 -0.04381350427865982 0.2374345362186432 204 204 255
0.6382843255996704 -0.014129051938652992 0.22919374704360962 204 204 255
5.961615562438965 -2.6114957332611084 -1.157381534576416 204 204 255
0.6339601278305054 -0.03366554155945778 0.23152552545070648 204 204 255
0.6442021131515503 0.06681007891893387 0.20316477119922638 204 204 255
0.6338303685188293 -0.23123307526111603 0.27757126092910767 204 204 255
6.239177227020264 -2.4655797481536865 -1.3178062438964844 204 204 255
0.633433997631073 -0.08216913044452667 0.24018962681293488 204 204 255
0.6366006731987 -0.1492602825164795 0.25352969765663147 204 204 255
0.6300364136695862 -0.0887424647808075 0.23955757915973663 204 204 255
0.6305795311927795 -0.10174717754125595 0.24247732758522034 204 204 255
0.6293973326683044 -0.05689726397395134 0.23195360600948334 204 204 255
0.6280302405357361 -0.038555193692445755 0.22745473682880402 204 204 255
-3.0009589195251465 1.0200599431991577 1.3683291673660278 204 204 255
-3.0009589195251465 1.0200599431991577 1.3683291673660278 204 204 255
0.6283380389213562 -0.1316153109073639 0.24840037524700165 204 204 255
0.6283380389213562 -0.1316153109073639 0.24840037524700165 204 204 255
0.6225292682647705 0.019492391496896744 0.21288831532001495 204 204 255
0.6245236992835999 -0.04020802304148674 0.2260597199201584 204 204 255
0.6245236992835999 -0.04020802304148674 0.2260597199201584 204 204 255
0.6232139468193054 -0.044974349439144135 0.22736510634422302 204 204 255
0.6430147886276245 -0.3741258978843689 0.29757145047187805 204 204 255
0.6226664185523987 -0.1562582105398178 0.24874955415725708 204 204 255
0.6161877512931824 0.018400756642222404 0.20739081501960754 204 204 255
0.614579439163208 0.03204723820090294 0.2045687437057495 204 204 255
0.6276753544807434 -0.35238128900527954 0.2912105619907379 204 204 255
0.6156101226806641 -0.04142141342163086 0.21934638917446136 204 204 255
0.6165240406990051 -0.13947869837284088 0.24144452810287476 204 204 255
0.6165240406990051 -0.13947869837284088 0.24144452810287476 204 204 255
0.6163094639778137 -0.10333187878131866 0.23241081833839417 204 204 255
0.6074358820915222 0.037515293806791306 0.20086905360221863 204 204 255
0.6074358820915222 0.037515293806791306 0.20086905360221863 204 204 255
0.6125218272209167 -0.06174619123339653 0.22252728044986725 204 204 255
0.6116905212402344 -0.008883937261998653 0.20952293276786804 204 204 255
0.6219495534896851 -0.23107361793518066 0.2587170898914337 204 204 255
0.6085286140441895 0.031937744468450546 0.20004431903362274 204 204 255
0.6116467714309692 -0.033247608691453934 0.2142365425825119 204 204 255
0.6115167140960693 -0.02927694283425808 0.21332819759845734 204 204 255
0.6133066415786743 -0.11006547510623932 0.23118092119693756 204 204 255
0.6103641390800476 -0.06753095984458923 0.22111432254314423 204 204 255
0.7247180938720703 -0.6674199104309082 0.318644255399704 204 204 255
0.7247180938720703 -0.6674199104309082 0.318644255399704 204 204 255
0.6107467412948608 -0.06136969104409218 0.21897925436496735 204 204 255
0.6015361547470093 0.04341588541865349 0.19193503260612488 204 204 255
0.6073328852653503 -0.24723826348781586 0.25760790705680847 204 204 255
0.6481609344482422 -0.3113410472869873 0.2559131979942322 204 204 255
0.5995827913284302 0.031191686168313026 0.19351288676261902 204 204 255
0.5995827913284302 0.031191686168313026 0.19351288676261902 204 204 255
0.6006457805633545 -0.12331359833478928 0.22918318212032318 204 204 255
0.6006457805633545 -0.12331359833478928 0.22918318212032318 204 204 255
0.605426549911499 -0.15114401280879974 0.2336915135383606 204 204 255
0.6027575731277466 -0.15474757552146912 0.23257260024547577 204 204 255
0.5999213457107544 -0.10659366101026535 0.22214317321777344 204 204 255
0.6004822254180908 -0.10970354080200195 0.22251780331134796 204 204 255
0.5992873907089233 -0.11243098229169846 0.22286438941955566 204 204 255
0.5905629992485046 0.03787722811102867 0.18692617118358612 204 204 255
0.5933148860931396 -0.09963549673557281 0.21635177731513977 204 204 255
0.603890597820282 -0.06368634104728699 0.20211298763751984 204 204 255
0.586764395236969 0.04346248507499695 0.18250730633735657 204 204 255
0.5864036083221436 0.050286050885915756 0.1797158569097519 204 204 255
0.5964435338973999 0.013932573609054089 0.18364979326725006 204 204 255
0.5862589478492737 0.030594496056437492 0.18297581374645233 204 204 255
0.5862589478492737 0.030594496056437492 0.18297581374645233 204 204 255
0.5839995741844177 0.0412856861948967 0.1808718740940094 204 204 255
0.5950475931167603 -0.033895716071128845 0.19259905815124512 204 204 255
0.5868861079216003 -0.1341143101453781 0.21866320073604584 204 204 255
0.5862208604812622 -0.11325652152299881 0.21245770156383514 204 204 255
0.5802130103111267 0.05036785826086998 0.17629879713058472 204 204 255
0.5806462168693542 0.04747806861996651 0.1763407438993454 204 204 255
0.5831019878387451 -0.12758228182792664 0.21483464539051056 204 204 255
0.5831019878387451 -0.12758228182792664 0.21483464539051056 204 204 255
0.5794429779052734 0.054723601788282394 0.17353478074073792 204 204 255
0.5794429779052734 0.054723601788282394 0.17353478074073792 204 204 255
0.5820021629333496 -0.09052713960409164 0.20600704848766327 204 204 255
0.5820021629333496 -0.09052713960409164 0.20600704848766327 204 204 255
0.5925315022468567 -0.3633260428905487 0.26417937874794006 204 204 255
0.5812979936599731 -0.11422131955623627 0.20991572737693787 204 204 255
0.5812979936599731 -0.11422131955623627 0.20991572737693787 204 204 255
0.5823079943656921 -0.13877910375595093 0.21452473104000092 204 204 255
0.5823079943656921 -0.13877910375595093 0.21452473104000092 204 204 255
0.5773664116859436 -0.10686025023460388 0.20628905296325684 204 204 255
0.5771567225456238 -0.18037796020507812 0.21741926670074463 204 204 255
0.5695969462394714 0.0419330857694149 0.16891372203826904 204 204 255
0.5715608596801758 -0.1522250771522522 0.21033214032649994 204 204 255
0.5715608596801758 -0.1522250771522522 0.21033214032649994 204 204 255
0.5775173902511597 -0.41005146503448486 0.2666829824447632 204 204 255
0.56747967004776 -0.1260957270860672 0.2018173187971115 204 204 255
0.5659675002098083 -0.2646692395210266 0.23300111293792725 204 204 255
0.56404048204422 -0.11357541382312775 0.1965300589799881 204 204 255
0.56404048204422 -0.11357541382312775 0.1965300589799881 204 204 255
0.5731185078620911 -0.05835442245006561 0.17934323847293854 204 204 255
5.203043460845947 -2.277353286743164 -1.3802570104599 204 204 255
0.5654637813568115 -0.03744190186262131 0.17108193039894104 204 204 255
0.5519415736198425 0.05488726124167442 0.15360379219055176 204 204 255
0.554358720779419 -0.13897019624710083 0.19652795791625977 204 204 255
0.5538811683654785 -0.15636637806892395 0.1980353742837906 204 204 255
0.548051655292511 -0.240585058927536 0.21683472394943237 204 204 255
0.5469655990600586 -0.06961763650178909 0.17648053169250488 204 204 255
0.5587305426597595 -0.21751710772514343 0.2034660428762436 204 204 255
0.5536482930183411 -0.22374825179576874 0.20699359476566315 204 204 255
0.5536482930183411 -0.22374825179576874 0.20699359476566315 204 204 255
0.5466349124908447 -0.1535618156194687 0.19228583574295044 204 204 255
0.5396357774734497 -0.08695294708013535 0.1731216460466385 204 204 255
0.534863293170929 0.005758099723607302 0.15063391625881195 204 204 255
0.5375930666923523 -0.12166118621826172 0.17816269397735596 204 204 255
0.5342943072319031 -0.050780393183231354 0.16307838261127472 204 204 255
0.5340767502784729 -0.06451252102851868 0.16575589776039124 204 204 255
0.5303859114646912 -0.11232410371303558 0.17432263493537903 204 204 255
0.5274361371994019 -0.0022784227039664984 0.15065951645374298 204 204 255
0.531624972820282 -0.1669553965330124 0.18458421528339386 204 204 255
0.5293158888816833 -0.17565372586250305 0.18755212426185608 204 204 255
0.5293158888816833 -0.17565372586250305 0.18755212426185608 204 204 255
0.5285425186157227 -0.032754961401224136 0.15573690831661224 204 204 255
0.5302086472511292 -0.19088199734687805 0.19019484519958496 204 204 255
0.5301741361618042 -0.21048603951931 0.19399023056030273 204 204 255
0.5274893641471863 -0.23952551186084747 0.19880299270153046 204 204 255
0.5274893641471863 -0.23952551186084747 0.19880299270153046 204 204 255
0.5248984694480896 0.003147604176774621 0.14445820450782776 204 204 255
0.5264008045196533 -0.16927731037139893 0.1814931184053421 204 204 255
0.5256418585777283 -0.0727544054389 0.16012588143348694 204 204 255
0.5256418585777283 -0.0727544054389 0.16012588143348694 204 204 255
0.5249326825141907 -0.02037392370402813 0.14859482645988464 204 204 255
0.5241366028785706 -0.05793285742402077 0.15637251734733582 204 204 255
0.5249396562576294 -0.15583373606204987 0.17646095156669617 204 204 255
0.5243200063705444 -0.19015611708164215 0.1840878278017044 204 204 255
0.5236778855323792 -0.21077100932598114 0.18892066180706024 204 204 255
0.5229421854019165 -0.01827738620340824 0.14593131840229034 204 204 255
0.522865891456604 -0.22384604811668396 0.19190163910388947 204 204 255
0.5233162641525269 -0.16356222331523895 0.17773868143558502 204 204 255
0.5229435563087463 -0.19990883767604828 0.18444089591503143 204 204 255
0.5217016935348511 0.02555563859641552 0.1336299479007721 204 204 255
0.5218781232833862 -0.22382566332817078 0.18878541886806488 204 204 255
0.5209315419197083 -0.21230776607990265 0.18664595484733582 204 204 255
0.5205135345458984 -0.15738312900066376 0.17424188554286957 204 204 255
0.519456148147583 -0.11899340152740479 0.1651681363582611 204 204 255
0.5192371010780334 -0.09230818599462509 0.15889781713485718 204 204 255
0.5181372761726379 -0.15953178703784943 0.17296411097049713 204 204 255
0.5176066160202026 -0.11371766775846481 0.1625518649816513 204 204 255
0.5176066160202026 -0.11371766775846481 0.1625518649816513 204 204 255
0.515224039554596 -0.12428899109363556 0.16345511376857758 204 204 255
0.5177538990974426 -0.23595651984214783 0.18608178198337555 204 204 255
0.5159998536109924 -0.17219337821006775 0.17262552678585052 204 204 255
0.5140546560287476 -0.12855274975299835 0.1638842225074768 204 204 255
0.5141052603721619 -0.12568210065364838 0.16127213835716248 204 204 255
0.511044979095459 -0.07955875992774963 0.14983071386814117 204 204 255
0.5164686441421509 0.006328351330012083 0.12770606577396393 204 204 255
0.5111294984817505 -0.1602889746427536 0.167122021317482 204 204 255
0.5117162466049194 -0.25483056902885437 0.18767324090003967 204 204 255
0.5082173943519592 -0.10919560492038727 0.1558997482061386 204 204 255
0.5077371597290039 -0.11950220912694931 0.15665043890476227 204 204 255
0.5078299045562744 -0.10778582096099854 0.15265211462974548 204 204 255
0.5075991749763489 -0.11222180724143982 0.15318360924720764 204 204 255
0.505327045917511 -0.15006345510482788 0.16084085404872894 204 204 255
0.5152227282524109 -0.22426071763038635 0.17078450322151184 204 204 255
0.5034447908401489 -0.09877524524927139 0.1488417237997055 204 204 255
0.5037552714347839 -0.11990883201360703 0.15314263105392456 204 204 255
0.5011191964149475 -0.09242049604654312 0.14631813764572144 204 204 255
0.5012099742889404 -0.15019094944000244 0.15875715017318726 204 204 255
0.5012099742889404 -0.15019094944000244 0.15875715017318726 204 204 255
0.5009233951568604 -0.1184699535369873 0.15186510980129242 204 204 255
0.5024029612541199 -0.2593521475791931 0.18117555975914001 204 204 255
0.5177866220474243 -0.2520415782928467 0.17172619700431824 204 204 255
0.5005525350570679 -0.1157018169760704 0.1502661108970642 204 204 255
0.4950203597545624 -0.09252745658159256 0.14114335179328918 204 204 255
0.49308499693870544 -0.1346139907836914 0.15023380517959595 204 204 255
0.49380266666412354 -0.112531378865242 0.14463289082050323 204 204 255
0.4918243885040283 -0.10982063412666321 0.140889972448349 204 204 255
0.48791447281837463 -0.11428270488977432 0.14367616176605225 204 204 255
0.4862115979194641 -0.12024562060832977 0.14004339277744293 204 204 255
0.48523053526878357 -0.09246411174535751 0.13400910794734955 204 204 255
0.4847567677497864 -0.128980815410614 0.14156004786491394 204 204 255
0.4847567677497864 -0.128980815410614 0.14156004786491394 204 204 255
0.4811296761035919 -0.2598184645175934 0.16969987750053406 204 204 255
0.4708113968372345 -0.27735933661460876 0.1769465208053589 204 204 255
0.4902307987213135 -0.02883155271410942 0.11337794363498688 204 204 255
0.4818241000175476 -0.11140135675668716 0.13482554256916046 204 204 255
0.4878547489643097 -0.2304249256849289 0.15732039511203766 204 204 255
0.4811050295829773 -0.13747400045394897 0.14057384431362152 204 204 255
0.4779108464717865 -0.12647086381912231 0.1368548572063446 204 204 255
0.4776082932949066 -0.09337960183620453 0.12872931361198425 204 204 255
5.507567882537842 -2.6062116622924805 -1.9808316230773926 204 204 255
0.48611751198768616 -0.04059550166130066 0.11136459559202194 204 204 255
0.4772658944129944 -0.1623329073190689 0.14201997220516205 204 204 255
0.4740239977836609 -0.10543712228536606 0.128276526927948 204 204 255
5.369607448577881 -2.7416882514953613 -1.9032950401306152 204 204 255
5.369607448577881 -2.7416882514953613 -1.9032950401306152 204 204 255
0.47226470708847046 -0.1514049917459488 0.1375451385974884 204 204 255
0.4719582796096802 -0.11221294850111008 0.12905068695545197 204 204 255
0.47166359424591064 -0.10357455164194107 0.1269686371088028 204 204 255
0.4685347378253937 -0.26961183547973633 0.16216570138931274 204 204 255
0.47695502638816833 -0.04648689180612564 0.10902483761310577 204 204 255
-2.7671258449554443 1.1450514793395996 1.599434733390808 204 204 255
0.4613984525203705 -0.26624152064323425 0.15337538719177246 204 204 255
0.45472681522369385 -0.26651448011398315 0.15010277926921844 204 204 255
0.45662596821784973 -0.2569647431373596 0.14618608355522156 204 204 255
0.44932815432548523 -0.26342400908470154 0.14562062919139862 204 204 255
0.4499322772026062 -0.2574407458305359 0.14232182502746582 204 204 255
0.44150516390800476 -0.22655051946640015 0.12500402331352234 204 204 255
0.4299379587173462 -0.17390966415405273 0.11173839867115021 204 204 255
-0.43512800335884094 0.13443264365196228 0.53912353515625 204 204 255
-0.4380943477153778 0.1330028772354126 0.5405077338218689 204 204 255
0.3757009208202362 -0.4362841546535492 0.12127372622489929 204 204 255
0.38108715415000916 -0.25979337096214294 0.08180030435323715 204 204 255
3.7863259315490723 -2.219785213470459 -1.7474992275238037 204 204 255
3.7863259315490723 -2.219785213470459 -1.7474992275238037 204 204 255
0.3390103280544281 -0.19816860556602478 0.04749404266476631 204 204 255
0.3184219300746918 -0.48160025477409363 0.09593953937292099 204 204 255
0.32926008105278015 -0.2848818302154541 0.051937151700258255 204 204 255
0.32490840554237366 -0.2770964205265045 0.05103571340441704 204 204 255
0.32736289501190186 -0.10602780431509018 0.01774223893880844 204 204 255
0.32249918580055237 -0.18946103751659393 0.024551507085561752 204 204 255
0.292064905166626 -0.28635579347610474 0.05336368456482887 204 204 255
3.0883309841156006 -2.146210193634033 -1.7708423137664795 204 204 255
0.284664124250412 -0.42233163118362427 0.040052369236946106 204 204 255
0.284664124250412 -0.42233163118362427 0.040052369236946106 204 204 255
3.045170783996582 -1.9478687047958374 -1.8466325998306274 204 204 255
0.22006851434707642 -0.4559290409088135 0.005839673802256584 204 204 255
0.22089673578739166 -0.2840266525745392 -0.031061531975865364 204 204 255
0.22089673578739166 -0.2840266525745392 -0.031061531975865364 204 204 255
3.382239580154419 -1.6765578985214233 -2.6204614639282227 204 204 255
3.2634758949279785 -1.7308812141418457 -2.591688394546509 204 204 255
0.1906859278678894 -0.45386242866516113 -0.022400425747036934 204 204 255
2.9908454418182373 -1.6994012594223022 -2.525068521499634 204 204 255
0.15466490387916565 -0.29510313272476196 -0.0719808042049408 204 204 255
0.12027265876531601 -0.0778871476650238 -0.11188454180955887 204 204 255
0.11873707920312881 -0.4668774902820587 -0.07137733697891235 204 204 255
0.11720409989356995 -0.4553152620792389 -0.08760929852724075 204 204 255
0.11199534684419632 -0.27911466360092163 -0.1266579031944275 204 204 255
2.0668630599975586 -1.1747255325317383 -2.1580166816711426 204 204 255
0.09233864396810532 -0.46609386801719666 -0.09405533224344254 204 204 255
0.0990530401468277 -0.4520508050918579 -0.10353326797485352 204 204 255
0.09972745925188065 -0.28598251938819885 -0.1314948946237564 204 204 255
0.1012272983789444 -0.2751779556274414 -0.13481535017490387 204 204 255
0.08416895568370819 -0.4192756414413452 -0.12413395196199417 204 204 255
0.08575749397277832 -0.2486262321472168 -0.15191300213336945 204 204 255
0.044804032891988754 -0.4422701895236969 -0.13148456811904907 204 204 255
0.024608686566352844 -0.4650938808917999 -0.15720348060131073 204 204 255
-0.27295273542404175 -0.09271122515201569 0.17953042685985565 204 204 255
0.013401511125266552 -0.4592337906360626 -0.1663278341293335 204 204 255
0.012779791839420795 -0.4662334620952606 -0.16577774286270142 204 204 255
0.018540333956480026 -0.23987466096878052 -0.20572803914546967 204 204 255
0.011368747800588608 -0.23724402487277985 -0.21321439743041992 204 204 255
-0.0017472178442403674 -0.4249359369277954 -0.1866561323404312 204 204 255
-0.2879473567008972 -0.09511915594339371 0.16599467396736145 204 204 255
-0.01717839017510414 0.018446603789925575 -0.24761159718036652 204 204 255
-0.020215492695569992 0.00295959017239511 -0.25356605648994446 204 204 255
-0.02046600729227066 0.003006943268701434 -0.25330135226249695 204 204 255
-0.40639540553092957 0.04806487634778023 0.28917089104652405 204 204 255
-0.03997474163770676 -0.09378115087747574 -0.23211005330085754 204 204 255
-0.41546395421028137 -0.050564467906951904 0.20923109352588654 204 204 255
-0.4265657067298889 -0.06764394044876099 0.20158898830413818 204 204 255
-0.5972612500190735 0.07991738617420197 0.4997786283493042 204 204 255
-0.5976758599281311 0.08280986547470093 0.4995259940624237 204 204 255
-0.5381484031677246 -0.06940419971942902 0.3316281735897064 204 204 255
0.3475815951824188 0.15664945542812347 0.7230651378631592 204 204 255
0.3526374101638794 0.1593708097934723 0.7170830368995667 204 204 255
0.342616468667984 0.13463294506072998 0.7217512130737305 204 204 255
0.40953195095062256 -0.23314380645751953 0.8342441320419312 204 204 255
0.3518558442592621 0.15395468473434448 0.7160565853118896 204 204 255
-10.836162567138672 3.4562363624572754 -1.1577298641204834 204 204 255
-10.836162567138672 3.4562363624572754 -1.1577298641204834 204 204 255
0.35331833362579346 0.1586606204509735 0.7134801149368286 204 204 255
0.34459787607192993 0.13462840020656586 0.7180554270744324 204 204 255
0.3542933464050293 0.15763671696186066 0.7114710211753845 204 204 255
0.3542933464050293 0.15763671696186066 0.7114710211753845 204 204 255
0.3572250306606293 0.17308944463729858 0.7057067155838013 204 204 255
0.35528990626335144 0.1511283665895462 0.7108399868011475 204 204 255
0.4148637056350708 -0.3058042824268341 0.8476886749267578 204 204 255
0.4148637056350708 -0.3058042824268341 0.8476886749267578 204 204 255
0.35845160484313965 0.14882388710975647 0.7056186199188232 204 204 255
0.36014994978904724 0.14481902122497559 0.7041301131248474 204 204 255
0.3608395755290985 0.1552998572587967 0.6995236277580261 204 204 255
0.3616231083869934 0.1480419784784317 0.7016433477401733 204 204 255
0.3616231083869934 0.1480419784784317 0.7016433477401733 204 204 255
0.36294060945510864 0.14771749079227448 0.6988001465797424 204 204 255
0.46181634068489075 -0.12494564056396484 0.7748904228210449 204 204 255
0.05704614520072937 -0.32022759318351746 0.8030977249145508 204 204 255
0.4910048544406891 0.0627131536602974 0.7036809325218201 204 204 255
0.48404088616371155 0.05675778165459633 0.7033949494361877 204 204 255
0.48404088616371155 0.05675778165459633 0.7033949494361877 204 204 255
0.44792163372039795 -0.3140084445476532 0.8061456680297852 204 204 255
0.45133793354034424 -0.31126245856285095 0.8034729361534119 204 204 255
0.4569660723209381 -0.2424982786178589 0.7778022289276123 204 204 255
0.49195656180381775 0.02806689776480198 0.6998458504676819 204 204 255
0.5037046074867249 0.05309928208589554 0.6856800317764282 204 204 255
0.5032190680503845 0.040039170533418655 0.6849902868270874 204 204 255
-0.031226055696606636 -0.03255968540906906 0.6711027026176453 204 204 255
0.5172874331474304 -0.3324970304965973 0.7190266251564026 204 204 255
0.5422937273979187 -0.15308430790901184 0.6698343753814697 204 204 255
0.5503673553466797 -0.22281935811042786 0.658936619758606 204 204 255
0.5503673553466797 -0.22281935811042786 0.658936619758606 204 204 255
0.572365403175354 -0.007714863400906324 0.5872189998626709 204 204 255
0.5940865278244019 0.11938793212175369 0.5496994256973267 204 204 255
0.6045106649398804 0.13819806277751923 0.5319154858589172 204 204 255
0.6334083080291748 -0.2672257721424103 0.6159838438034058 204 204 255
0.581935703754425 -0.2729545533657074 0.6179311275482178 204 204 255
0.6327070593833923 0.10730965435504913 0.5020787119865417 204 204 255
0.587787389755249 -0.39363181591033936 0.6257393956184387 204 204 255
0.6333940625190735 0.022564830258488655 0.5155733823776245 204 204 255
0.6502177119255066 0.07907804101705551 0.4880753755569458 204 204 255
0.6502177119255066 0.07907804101705551 0.4880753755569458 204 204 255
0.6513392329216003 0.06419970840215683 0.49156898260116577 204 204 255
0.6250790357589722 -0.17975497245788574 0.5538862347602844 204 204 255
0.6318992972373962 -0.1058296337723732 0.5347251892089844 204 204 255
0.6500847339630127 0.04745417833328247 0.49428051710128784 204 204 255
0.606749415397644 -0.35875147581100464 0.598002016544342 204 204 255
0.6197704672813416 -0.32954245805740356 0.5891991257667542 204 204 255
0.650709331035614 0.029282495379447937 0.49769702553749084 204 204 255
0.650709331035614 0.029282495379447937 0.49769702553749084 204 204 255
0.6468874216079712 -0.1739964485168457 0.5430037379264832 204 204 255
0.6320402026176453 -0.3328278362751007 0.5784598588943481 204 204 255
0.6320402026176453 -0.3328278362751007 0.5784598588943481 204 204 255
0.6685546636581421 0.08313948661088943 0.47180354595184326 204 204 255
0.6431089639663696 -0.1676558256149292 0.5312893390655518 204 204 255
0.6582961678504944 0.014383589848876 0.48266342282295227 204 204 255
0.6743980050086975 0.058920055627822876 0.46746787428855896 204 204 255
0.6335355043411255 -0.3268580138683319 0.5651891827583313 204 204 255
0.6432235836982727 -0.18448273837566376 0.5257453322410583 204 204 255
0.6487456560134888 -0.34538376331329346 0.5578229427337646 204 204 255
0.6667746305465698 -0.12654262781143188 0.502781093120575 204 204 255
0.665117084980011 -0.1433570384979248 0.5057094097137451 204 204 255
0.6510875821113586 -0.18698357045650482 0.5155923962593079 204 204 255
0.6535348892211914 -0.33850589394569397 0.5508898496627808 204 204 255
0.6571559309959412 -0.3184041678905487 0.5416218638420105 204 204 255
0.6551138758659363 -0.36440297961235046 0.5479741096496582 204 204 255
0.6837612986564636 0.06634680181741714 0.43948695063591003 204 204 255
0.6664649248123169 0.021758615970611572 0.4487346410751343 204 204 255
0.6882618069648743 0.05061087757349014 0.43415912985801697 204 204 255
0.7075459957122803 0.07047998160123825 0.41018787026405334 204 204 255
0.7199677228927612 0.06534864008426666 0.3979858458042145 204 204 255
0.6770920753479004 -0.3803311288356781 0.5080203413963318 204 204 255
0.726333737373352 0.04782571643590927 0.3997136056423187 204 204 255
0.7057666182518005 0.012680081650614738 0.40799418091773987 204 204 255
0.7057666182518005 0.012680081650614738 0.40799418091773987 204 204 255
0.7185297608375549 0.07938993722200394 0.3903924822807312 204 204 255
0.6891459226608276 -0.3006642460823059 0.4777025282382965 204 204 255
0.7351731061935425 0.04063652083277702 0.3905353248119354 204 204 255
0.733508825302124 0.006165631581097841 0.3968086242675781 204 204 255
0.7183253765106201 0.09333891421556473 0.3505709171295166 204 204 255
0.7511672377586365 -0.6675610542297363 0.5164680480957031 204 204 255
0.7250098586082458 -0.024701980873942375 0.3732072412967682 204 204 255
0.8677123188972473 -0.7348321080207825 0.4958777129650116 204 204 255
0.7105625867843628 0.10890627652406693 0.3331073820590973 204 204 255
0.724203884601593 -0.6689308881759644 0.4948312044143677 204 204 255
0.6940698623657227 -0.4719442129135132 0.4557064175605774 204 204 255
0.6940698623657227 -0.4719442129135132 0.4557064175605774 204 204 255
0.7122308015823364 -0.0366237573325634 0.34964868426322937 204 204 255
0.6989216804504395 -0.46984046697616577 0.44770118594169617 204 204 255
0.6975029706954956 -0.08974091708660126 0.36200523376464844 204 204 255
0.6996491551399231 -0.08674744516611099 0.3581904470920563 204 204 255
0.7082194685935974 -0.012285180389881134 0.3391963243484497 204 204 255
0.7101684212684631 -0.027180569246411324 0.3401075601577759 204 204 255
0.7089381217956543 -0.022167924791574478 0.33498549461364746 204 204 255
0.7090391516685486 -0.030896084383130074 0.3364575505256653 204 204 255
0.7007216215133667 -0.0861276388168335 0.34877172112464905 204 204 255
0.701315701007843 -0.003121261252090335 0.32944175601005554 204 204 255
0.7166402339935303 0.11601719260215759 0.2993466258049011 204 204 255
0.7172073125839233 0.12084755301475525 0.2981444299221039 204 204 255
0.716096043586731 0.10872897505760193 0.30097606778144836 204 204 255
0.7066527009010315 -0.11877109855413437 0.3525649309158325 204 204 255
0.7085002064704895 -0.021318072453141212 0.33062079548835754 204 204 255
0.7068771123886108 -0.10272454470396042 0.3469794988632202 204 204 255
0.7051742076873779 -0.1333620697259903 0.35155999660491943 204 204 255
0.7064338326454163 -0.013706887140870094 0.3248898386955261 204 204 255
0.6973513960838318 -0.1300085484981537 0.3499482274055481 204 204 255
0.7026007771492004 -0.11157803982496262 0.3434036672115326 204 204 255
0.6970072984695435 -0.06229746341705322 0.3332911431789398 204 204 255
0.7065544128417969 -0.04198983311653137 0.3263591527938843 204 204 255
0.6885451078414917 -0.5161106586456299 0.43176600337028503 204 204 255
0.6990715265274048 -0.2321678102016449 0.3677231967449188 204 204 255
